ply
format ascii 1.0
element vertex 147
property float x
property float y
property float z
property float nx
property float ny
property float nz
end_header
0.004298 -0.029901 0.282000 0.025349 0.227182 -0.973522
0.003513 -0.052174 0.281000 0.012979 0.135515 -0.990690
-0.048204 0.000372 0.308000 -0.333309 0.282366 -0.899541
-0.013720 0.079825 0.310989 -0.237315 0.299489 -0.924115
-0.055310 -0.005231 0.310000 -0.329268 0.301644 -0.894759
-0.024371 0.025327 0.303000 -0.321309 0.145775 -0.935687
-0.018454 0.064176 0.306708 -0.442591 0.280838 -0.851612
-0.042262 0.024229 0.306292 -0.333385 0.116202 -0.935602
-0.037275 -0.027020 0.286000 -0.313163 0.327443 -0.891465
-0.058260 -0.039338 0.298000 -0.316126 0.357720 -0.878693
-0.022503 0.058835 0.308135 -0.444617 0.255746 -0.858434
-0.048985 -0.029125 0.293000 -0.358513 0.346468 -0.866850
-0.026139 -0.027714 0.284000 -0.218975 0.290018 -0.931633
-0.027258 -0.032238 0.283989 -0.222446 0.282031 -0.933261
-0.033231 -0.049448 0.284910 -0.240261 0.286158 -0.927571
-0.053972 -0.033810 0.295000 -0.377535 0.345872 -0.858976
-0.029775 -0.039653 0.283034 -0.226033 0.273088 -0.935057
-0.054702 -0.024096 0.296978 -0.431407 0.331681 -0.838973
-0.058711 -0.026478 0.297292 -0.439525 0.329651 -0.835552
-0.028880 0.017373 0.303000 -0.323748 0.118067 -0.938748
-0.048937 -0.045821 0.291933 -0.318678 0.350761 -0.880574
-0.044930 -0.038475 0.290000 -0.333312 0.333315 -0.881932
-0.039560 -0.031769 0.287022 -0.319400 0.322646 -0.891001
-0.013813 0.068264 0.305022 -0.438526 0.288717 -0.851080
-0.012452 -0.031756 0.282000 -0.122496 0.269578 -0.955156
-0.013968 -0.039358 0.281000 -0.171700 0.033421 -0.984582
-0.016288 -0.051325 0.282000 -0.176244 0.001162 -0.984346
-0.054930 0.004779 0.313000 -0.319151 0.241794 -0.916340
-0.060387 0.007224 0.316000 -0.321829 0.196105 -0.926266
-0.050602 0.009674 0.311000 -0.358885 0.128742 -0.924460
-0.042105 0.012085 0.306551 -0.360816 0.089969 -0.928287
-0.029853 0.010706 0.304000 -0.342107 0.100431 -0.934278
-0.056993 0.019929 0.313000 -0.395483 0.118761 -0.910763
-0.058088 0.028734 0.315966 -0.390385 0.118696 -0.912968
-0.014927 0.085241 0.315944 -0.261304 0.309113 -0.914423
-0.060429 -0.004468 0.314000 -0.284398 0.297337 -0.911432
-0.053989 0.031016 0.315180 -0.379218 0.176091 -0.908398
-0.003247 0.092328 0.313438 -0.038837 0.243451 -0.969135
0.003892 -0.039597 0.281000 0.031047 0.150424 -0.988134
-0.057692 -0.015751 0.305000 -0.421403 0.343794 -0.839181
-0.023235 0.077222 0.313000 -0.498004 0.350231 -0.793304
-0.003838 0.089838 0.312011 -0.042407 0.260717 -0.964483
-0.013626 0.089195 0.319011 -0.118203 0.227087 -0.966674
-0.058297 0.030101 0.316180 -0.410075 0.168684 -0.896317
-0.020148 0.052883 0.305281 -0.429967 0.220031 -0.875623
-0.044889 0.035711 0.311022 -0.345702 0.199972 -0.916789
-0.044017 0.048358 0.315000 -0.377119 0.261667 -0.888432
-0.010820 0.074796 0.305000 -0.223156 0.288503 -0.931111
-0.025145 0.065357 0.312910 -0.448169 0.282486 -0.848143
-0.019450 0.033694 0.304000 -0.348859 0.179654 -0.919795
-0.018849 0.070603 0.309000 -0.483142 0.339249 -0.807146
-0.032605 0.032257 0.305000 -0.318308 0.151261 -0.935842
-0.023962 0.039574 0.305000 -0.378340 0.206544 -0.902329
-0.036287 0.041180 0.309000 -0.364536 0.243745 -0.898722
-0.030504 0.068270 0.318000 -0.467203 0.326685 -0.821583
-0.022068 0.073185 0.311000 -0.490119 0.343980 -0.800913
-0.029478 0.058006 0.312000 -0.422904 0.236990 -0.874636
-0.050722 0.040043 0.315000 -0.371559 0.202723 -0.906006
-0.037616 0.057755 0.319562 -0.382483 0.226782 -0.895699
-0.027088 0.047580 0.308000 -0.396080 0.232168 -0.888380
-0.044926 0.003413 0.306989 -0.357764 0.201969 -0.911709
-0.038092 0.005385 0.305000 -0.354286 0.126774 -0.926504
-0.029578 0.005351 0.304000 -0.346791 0.134861 -0.928197
0.070880 -0.035891 0.301787 0.641886 0.176503 -0.746210
0.041639 -0.021182 0.290000 0.340300 0.294155 -0.893123
0.034478 -0.020199 0.290000 0.256879 0.317300 -0.912871
0.048655 -0.020370 0.292000 0.404482 0.295478 -0.865498
0.053495 -0.018295 0.295000 0.428978 0.411384 -0.804202
0.032505 0.078629 0.313360 0.558351 0.274514 -0.782870
0.076594 -0.012428 0.319400 0.560590 0.245330 -0.790918
0.066205 -0.009946 0.312000 0.605630 0.223499 -0.763715
0.037774 0.022728 0.303000 0.342488 0.161980 -0.925454
0.035550 0.062594 0.309169 0.561788 0.255564 -0.786817
0.060925 -0.025519 0.296000 0.530769 0.177609 -0.828698
0.055339 0.020330 0.306449 0.368134 0.148167 -0.917891
0.046067 -0.030712 0.286101 0.373113 0.123175 -0.919573
0.054658 -0.028934 0.289899 0.449667 0.238734 -0.860701
0.066261 -0.044763 0.301000 0.524216 0.096598 -0.846089
0.038982 0.056703 0.309337 0.533229 0.287562 -0.795597
0.066948 0.039227 0.319163 0.486678 0.319763 -0.812955
0.057729 -0.033351 0.291888 0.549164 0.112285 -0.828137
0.034814 -0.030410 0.284022 0.251772 0.167615 -0.953161
0.035559 -0.034883 0.283214 0.282907 0.109103 -0.952922
0.040069 -0.052383 0.284944 0.338216 0.035845 -0.940386
0.062187 -0.038632 0.296270 0.552518 0.115379 -0.825477
0.037466 -0.042414 0.284000 0.301564 0.081047 -0.949995
0.064420 -0.028835 0.299000 0.598826 0.167076 -0.783258
0.068152 -0.032017 0.302000 0.629703 0.187996 -0.753745
0.073028 0.009813 0.314551 0.549366 0.106055 -0.828824
0.031437 0.010940 0.301124 0.393002 0.243225 -0.886787
0.041559 0.014561 0.303000 0.349959 0.115828 -0.929576
0.056314 -0.050404 0.294124 0.479581 0.026907 -0.877085
0.052727 -0.042414 0.290854 0.469825 0.038745 -0.881909
0.048162 -0.035300 0.287034 0.377023 0.117234 -0.918755
0.031318 0.067176 0.308011 0.553951 0.275984 -0.785475
0.020750 -0.033386 0.282000 0.128844 0.161490 -0.978427
0.021767 -0.040987 0.282000 0.119832 0.156860 -0.980324
0.023193 -0.052705 0.281000 0.140104 0.025203 -0.989816
0.065613 -0.000178 0.311000 0.489473 0.176154 -0.854041
0.059687 -0.016779 0.301539 0.548429 0.318895 -0.773002
0.071723 0.001886 0.315034 0.583040 0.159401 -0.796653
0.061570 0.005044 0.309000 0.456677 0.107334 -0.883134
0.053414 0.008077 0.305719 0.384776 0.095744 -0.918031
0.041262 0.007696 0.303000 0.420324 0.228263 -0.878193
0.069781 0.014820 0.313955 0.483866 0.087094 -0.870798
0.064038 -0.018701 0.303989 0.621401 0.291868 -0.727099
0.071079 0.023768 0.316944 0.479220 0.177154 -0.859630
0.056936 0.060927 0.324989 0.505511 0.338058 -0.793836
0.056223 0.064385 0.325000 0.519756 0.314303 -0.794397
0.074357 0.012316 0.315966 0.489492 0.087384 -0.867618
0.062931 0.050544 0.323000 0.493394 0.360454 -0.791603
0.070516 -0.023054 0.302000 0.656823 0.249954 -0.711412
0.034300 0.083260 0.316000 0.558140 0.275513 -0.782670
0.071295 -0.009789 0.315876 0.590455 0.229634 -0.773712
0.067560 0.026093 0.315034 0.479854 0.210484 -0.851726
0.023557 0.090861 0.311989 0.189609 0.304914 -0.933315
0.041160 0.080056 0.318438 0.560760 0.280640 -0.778967
0.048260 0.073609 0.322000 0.549831 0.278916 -0.787332
0.066749 -0.020580 0.302000 0.646446 0.258977 -0.717662
0.049946 0.069637 0.323000 0.550029 0.303603 -0.778006
0.042345 0.076180 0.319326 0.558597 0.275020 -0.782517
0.023541 0.088511 0.311022 0.186732 0.293254 -0.937621
0.062175 0.053389 0.324326 0.488923 0.356677 -0.796075
0.033370 0.086480 0.316000 0.423038 0.328654 -0.844409
0.071760 0.024911 0.317000 0.481989 0.178092 -0.857887
0.036013 0.051041 0.306921 0.495922 0.250296 -0.831512
0.058880 0.031472 0.310921 0.400596 0.258969 -0.878896
0.059764 0.044385 0.317045 0.458598 0.350236 -0.816715
0.042581 0.063469 0.316820 0.559072 0.273891 -0.782574
0.033686 0.031461 0.303966 0.358122 0.191265 -0.913875
0.036751 0.069328 0.313461 0.558908 0.274912 -0.782333
0.046564 0.029134 0.305966 0.350516 0.168440 -0.921285
0.038544 0.037061 0.305011 0.346487 0.189581 -0.918698
0.051046 0.037903 0.310000 0.408821 0.278375 -0.869122
0.048426 0.065916 0.321719 0.537971 0.297719 -0.788639
0.040745 0.072393 0.317685 0.557914 0.273861 -0.783411
0.045995 0.055385 0.313787 0.523076 0.302804 -0.796681
0.065275 0.035522 0.316000 0.467633 0.309977 -0.827788
0.053988 0.054081 0.319854 0.495217 0.364706 -0.788511
0.067976 0.037050 0.317000 0.491978 0.320094 -0.809628
0.042368 0.044846 0.308146 0.459020 0.269525 -0.846556
0.034635 -0.023885 0.288000 0.292238 0.208226 -0.933402
0.043505 -0.024605 0.288000 0.342989 0.238894 -0.908454
0.051143 -0.023654 0.291000 0.405687 0.292973 -0.865786
0.056565 -0.021126 0.295146 0.522585 0.293614 -0.800434
0.076235 -0.000110 0.317000 0.598483 0.171495 -0.782565
0.075035 -0.002810 0.316730 0.590842 0.173266 -0.787962
